20 10
640844.93 158049.05 2175.6
640844.92 158209.05 2243.1
640844.92 158371.55 2299.5
640844.91 158531.55 2221.1
640844.91 158694.05 2170.4
640844.9 158854.05 2088.8
640844.89 159016.56 2051.4
640844.89 159176.56 2022.7
640844.89 159339.06 1981.7
640844.89 159499.06 1936.2
641024.93 158049.05 2212.9
641024.92 158209.05 2285.6
641024.92 158371.55 2333.0
641024.91 158531.55 2212.7
641024.91 158694.06 2145.6
641024.9 158854.06 2094.7
641024.9 159016.56 2055.4
641024.89 159176.56 2020.9
641024.89 159339.06 1992.1
641024.88 159499.06 1943.4
641202.43 158049.05 2248.1
641202.42 158209.05 2308.0
641202.42 158371.55 2388.2
641202.41 158531.56 2272.3
641202.41 158694.06 2178.0
641202.4 158854.06 2135.8
641202.4 159016.56 2085.6
641202.39 159176.56 2040.0
641202.39 159339.07 2017.8
641202.38 159499.07 1998.4
641382.43 158049.05 2317.7
641382.42 158209.06 2329.5
641382.42 158371.56 2386.9
641382.41 158531.56 2292.1
641382.41 158694.06 2221.2
641382.4 158854.06 2214.5
641382.4 159016.56 2152.2
641382.39 159176.57 2097.0
641382.39 159339.07 2020.3
641382.38 159499.07 1960.6
641559.93 158049.06 2421.1
641559.93 158209.06 2375.5
641559.92 158371.56 2418.2
641559.92 158531.56 2567.9
641559.91 158694.06 2281.0
641559.91 158854.07 2269.5
641559.9 159016.57 2244.2
641559.9 159176.57 2163.6
641559.89 159339.07 2064.7
641559.89 159499.07 1994.4
641739.93 158049.06 2524.2
641739.93 158209.06 2518.9
641739.92 158371.56 2525.7
641739.92 158531.56 2576.9
641739.91 158694.07 2383.2
641739.91 158854.07 2328.2
641739.9 159016.57 2276.4
641739.9 159176.57 2215.2
641739.89 159339.07 2128.6
641739.89 159499.08 2054.3
641917.43 158049.06 2700.0
641917.43 158209.06 2638.4
641917.42 158371.57 2640.8
641917.42 158531.57 2646.8
641917.41 158694.07 2589.2
641917.41 158854.07 2305.0
641917.4 159016.57 2247.3
641917.4 159176.57 2216.7
641917.39 159339.08 2126.8
641917.39 159499.08 2066.0
642097.43 158049.06 2900.8
642097.43 158209.07 2770.9
642097.42 158371.57 2748.1
642097.42 158531.57 2739.4
642097.41 158694.07 2778.5
642097.41 158854.07 2415.6
642097.4 159016.58 2238.6
642097.4 159176.58 2155.2
642097.39 159339.08 2103.2
642097.39 159499.08 2103.2
642274.94 158049.07 3047.2
642274.93 158209.07 2938.0
642274.93 158371.57 2879.6
642274.92 158531.57 2906.9
642274.92 158694.07 2920.9
642274.91 158854.08 2515.3
642274.91 159016.58 2274.8
642274.9 159176.58 2181.9
642274.9 159339.08 2107.0
642274.89 159499.08 2057.2
642454.94 158049.07 3206.8
642454.93 158209.07 3048.2
642454.93 158371.57 3060.8
642454.92 158531.58 3054.0
642454.92 158694.08 3111.2
642454.91 158854.08 2614.8
642454.91 159016.58 2353.0
642454.9 159176.58 2228.2
642454.9 159339.08 2126.3
642454.89 159499.09 2070.6
642632.44 158049.07 3332.4
642632.43 158209.07 3261.2
642632.43 158371.57 3200.0
642632.42 158531.58 3265.6
642632.42 158694.08 3035.9
642632.41 158854.08 2598.6
642632.41 159016.58 2410.8
642632.4 159176.59 2253.4
642632.4 159339.09 2181.3
642632.39 159499.09 2105.4
642812.44 158049.06 3412.4
642812.44 158209.07 3348.3
642812.43 158371.57 3352.1
642812.43 158531.57 3423.0
642812.42 158694.08 3439.6
642812.42 158854.08 2702.8
642812.41 159016.58 2549.4
642812.4 159176.59 2387.9
642812.4 159339.09 2240.4
642812.39 159499.09 2177.4
642989.94 158049.06 3475.2
642989.94 158209.06 3485.9
642989.93 158371.57 3495.1
642989.93 158531.57 3563.0
642989.92 158694.07 3477.5
642989.92 158854.08 3043.7
642989.91 159016.58 2673.9
642989.91 159176.58 2506.1
642989.9 159339.09 2346.9
642989.9 159499.09 2251.7
643169.95 158049.05 3482.9
643169.94 158209.06 3627.2
643169.94 158371.56 3660.2
643169.93 158531.56 3703.6
643169.92 158694.07 3480.6
643169.92 158854.07 3159.8
643169.91 159016.57 2808.8
643169.91 159176.58 2612.0
643169.9 159339.08 2461.4
643169.9 159499.08 2299.5
643347.45 158049.05 3511.1
643347.44 158209.05 3636.3
643347.44 158371.56 3779.4
643347.43 158531.56 3881.0
643347.43 158694.06 3836.2
643347.42 158854.07 3369.7
643347.42 159016.57 3023.7
643347.41 159176.57 2768.6
643347.41 159339.08 2577.6
643347.4 159499.08 2392.7
643527.45 158049.05 3596.0
643527.44 158209.05 3600.1
643527.44 158371.55 3673.2
643527.43 158531.56 3785.1
643527.43 158694.06 3940.8
643527.42 158854.06 3776.9
643527.42 159016.57 3357.1
643527.41 159176.57 3093.4
643527.41 159339.07 2794.8
643527.4 159499.08 2512.9
643704.95 158049.04 3415.9
643704.95 158209.04 3436.7
643704.94 158371.55 3454.0
643704.94 158531.55 3582.8
643704.93 158694.05 3763.0
643704.93 158854.06 3825.7
643704.92 159016.56 3608.8
643704.92 159176.56 3373.7
643704.91 159339.07 3060.0
643704.9 159499.07 2668.3
643884.95 158049.04 3092.5
643884.95 158209.04 3149.8
643884.94 158371.54 3235.3
643884.94 158531.55 3293.8
643884.93 158694.05 3461.0
643884.93 158854.05 3739.6
643884.92 159016.56 3606.4
643884.92 159176.56 3402.3
643884.91 159339.06 3136.5
643884.91 159499.07 2845.3
644062.46 158049.03 3020.1
644062.45 158209.03 3046.0
644062.45 158371.54 3120.9
644062.44 158531.54 3143.5
644062.44 158694.04 3289.9
644062.43 158854.05 3509.8
644062.42 159016.55 3581.6
644062.42 159176.55 3338.6
644062.41 159339.06 3155.2
644062.41 159499.06 2874.3
644242.46 158049.03 2996.4
644242.45 158209.03 2945.6
644242.45 158371.53 3057.9
644242.44 158531.54 3099.9
644242.44 158694.04 3186.1
644242.43 158854.04 3310.6
644242.43 159016.55 3483.6
644242.42 159176.55 3272.5
644242.42 159339.05 3065.8
644242.41 159499.06 2843.5
