40 20
667829.27 201130.13 504.3
667829.27 201910.13 456.4
667829.28 202710.12 433.6
667829.28 203490.12 445.7
667829.27 204290.12 433.6
667829.26 205070.12 433.6
667829.25 205870.12 433.6
667829.24 206650.12 505.8
667829.23 207450.12 504.7
667829.23 208230.12 494.7
667829.22 209030.12 539.7
667829.21 209810.12 437.1
667829.21 210610.11 433.6
667829.2 211390.11 433.6
667829.2 212190.11 477.6
667829.19 212970.11 602.1
667829.19 213770.1 508.8
667829.19 214550.09 420.4
667829.2 215350.1 484.2
667829.21 216130.11 419.6
668569.27 201130.15 518.3
668569.28 201910.14 600.1
668569.28 202710.14 435.3
668569.28 203490.13 435.1
668569.27 204290.12 433.6
668569.26 205070.12 433.6
668569.24 205870.12 433.6
668569.24 206650.12 444.0
668569.23 207450.12 442.1
668569.22 208230.11 433.6
668569.22 209030.11 433.6
668569.21 209810.12 433.6
668569.2 210610.11 433.6
668569.2 211390.11 435.0
668569.19 212190.11 510.4
668569.19 212970.11 622.6
668569.18 213770.11 510.3
668569.19 214550.1 453.4
668569.2 215350.11 419.5
668569.21 216130.13 466.6
669309.28 201130.16 477.8
669309.28 201910.16 439.3
669309.28 202710.15 439.1
669309.29 203490.13 597.9
669309.27 204290.12 433.6
669309.26 205070.12 433.6
669309.24 205870.12 433.6
669309.24 206650.12 433.6
669309.23 207450.12 433.6
669309.22 208230.12 433.6
669309.21 209030.11 433.6
669309.21 209810.11 433.6
669309.2 210610.11 447.2
669309.19 211390.11 523.0
669309.19 212190.11 454.4
669309.19 212970.11 615.9
669309.18 213770.11 556.2
669309.19 214550.12 592.2
669309.2 215350.13 424.0
669309.21 216130.15 420.5
670049.28 201130.18 480.5
670049.28 201910.17 443.6
670049.29 202710.15 709.3
670049.29 203490.14 725.1
670049.27 204290.13 826.1
670049.25 205070.12 537.3
670049.24 205870.12 433.6
670049.24 206650.12 433.6
670049.23 207450.13 433.6
670049.23 208230.13 433.6
670049.22 209030.12 433.6
670049.21 209810.11 496.8
670049.2 210610.11 491.5
670049.19 211390.11 534.8
670049.19 212190.11 553.5
670049.19 212970.11 531.4
670049.19 213770.11 561.3
670049.19 214550.13 599.8
670049.2 215350.15 559.9
670049.2 216130.16 420.7
670789.28 201130.19 451.1
670789.29 201910.17 445.9
670789.29 202710.16 445.1
670789.29 203490.14 984.0
670789.27 204290.13 730.3
670789.26 205070.12 890.4
670789.24 205870.12 520.7
670789.24 206650.12 433.6
670789.23 207450.13 433.6
670789.23 208230.13 433.6
670789.22 209030.13 433.6
670789.21 209810.12 433.6
670789.2 210610.11 462.5
670789.19 211390.1 535.0
670789.19 212190.1 593.8
670789.2 212970.11 561.0
670789.21 213770.11 563.4
670789.21 214550.13 663.9
670789.22 215350.15 694.3
670789.22 216130.16 503.0
671529.29 201130.18 453.6
671529.29 201910.18 449.1
671529.3 202710.16 449.1
671529.29 203490.15 642.4
671529.28 204290.14 905.4
671529.26 205070.13 746.1
671529.24 205870.12 540.1
671529.24 206650.12 433.6
671529.23 207450.13 433.6
671529.23 208230.14 433.6
671529.22 209030.13 433.6
671529.21 209810.13 433.6
671529.2 210610.11 433.6
671529.2 211390.1 479.4
671529.21 212190.1 561.2
671529.22 212970.11 593.0
671529.22 213770.12 533.6
671529.23 214550.13 630.9
671529.23 215350.15 642.7
671529.24 216130.16 627.3
672269.3 201130.18 459.4
672269.3 201910.18 483.8
672269.31 202710.17 447.7
672269.3 203490.15 489.4
672269.28 204290.14 911.6
672269.26 205070.14 836.3
672269.24 205870.13 912.0
672269.24 206650.13 433.6
672269.23 207450.14 433.6
672269.23 208230.14 433.6
672269.22 209030.14 433.6
672269.22 209810.13 433.6
672269.21 210610.12 433.6
672269.19 211390.12 433.6
672269.18 212190.12 511.8
672269.19 212970.13 575.5
672269.21 213770.13 597.0
672269.24 214550.13 542.1
672269.25 215350.14 565.5
672269.26 216130.16 716.6
673009.31 201130.18 591.0
673009.31 201910.18 490.5
673009.31 202710.17 443.3
673009.3 203490.16 440.9
673009.28 204290.15 658.8
673009.26 205070.15 903.7
673009.24 205870.14 1099.4
673009.24 206650.14 433.6
673009.23 207450.15 433.6
673009.23 208230.15 433.6
673009.23 209030.15 462.1
673009.22 209810.15 433.6
673009.2 210610.15 433.6
673009.19 211390.15 433.6
673009.17 212190.15 433.6
673009.16 212970.15 491.2
673009.17 213770.15 604.9
673009.22 214550.15 589.0
673009.25 215350.15 586.4
673009.25 216130.16 639.8
673749.32 201130.18 696.9
673749.32 201910.18 544.2
673749.32 202710.18 441.8
673749.3 203490.17 437.6
673749.28 204290.16 484.4
673749.26 205070.16 732.3
673749.24 205870.15 933.3
673749.24 206650.15 433.6
673749.23 207450.15 433.6
673749.22 208230.14 433.6
673749.23 209030.15 433.6
673749.24 209810.15 493.2
673749.22 210610.17 433.6
673749.21 211390.17 433.6
673749.19 212190.17 433.6
673749.18 212970.16 433.6
673749.17 213770.16 544.7
673749.2 214550.16 608.8
673749.24 215350.15 569.7
673749.25 216130.16 614.4
674489.33 201130.17 750.0
674489.33 201910.18 587.7
674489.32 202710.18 455.7
674489.3 203490.18 436.1
674489.28 204290.17 435.0
674489.25 205070.17 634.7
674489.24 205870.16 618.4
674489.23 206650.15 433.6
674489.22 207450.14 433.6
674489.22 208230.14 433.6
674489.23 209030.15 433.6
674489.25 209810.15 489.5
674489.24 210610.16 453.0
674489.23 211390.17 433.6
674489.21 212190.18 433.6
674489.2 212970.18 433.6
674489.19 213770.17 455.5
674489.19 214550.16 545.2
674489.22 215350.16 555.1
674489.24 216130.16 518.8
675229.33 201130.17 971.3
675229.32 201910.18 658.1
675229.31 202710.18 500.1
675229.29 203490.18 433.6
675229.26 204290.17 433.6
675229.24 205070.16 572.0
675229.23 205870.15 770.7
675229.22 206650.14 433.6
675229.21 207450.14 433.6
675229.22 208230.14 433.6
675229.23 209030.15 433.6
675229.25 209810.15 510.6
675229.25 210610.16 531.1
675229.24 211390.17 517.7
675229.23 212190.18 445.9
675229.22 212970.2 433.6
675229.21 213770.19 433.6
675229.21 214550.17 443.2
675229.21 215350.16 529.2
675229.23 216130.16 557.8
675969.32 201130.17 1253.7
675969.31 201910.18 856.1
675969.3 202710.18 500.8
675969.28 203490.18 433.6
675969.25 204290.17 433.6
675969.23 205070.16 433.6
675969.22 205870.14 709.2
675969.21 206650.14 433.6
675969.21 207450.13 433.6
675969.22 208230.15 433.6
675969.23 209030.15 433.6
675969.25 209810.15 503.8
675969.27 210610.16 697.1
675969.26 211390.17 778.7
675969.24 212190.18 598.2
675969.24 212970.2 525.7
675969.24 213770.18 485.0
675969.23 214550.17 436.2
675969.23 215350.16 434.7
675969.23 216130.15 473.5
676709.31 201130.17 997.3
676709.3 201910.18 743.5
676709.29 202710.18 467.1
676709.26 203490.18 433.6
676709.24 204290.16 433.6
676709.22 205070.15 433.6
676709.21 205870.13 777.5
676709.2 206650.13 433.6
676709.21 207450.14 433.6
676709.22 208230.15 433.6
676709.23 209030.16 433.6
676709.26 209810.15 640.6
676709.28 210610.15 1011.6
676709.27 211390.16 1100.6
676709.26 212190.18 931.3
676709.26 212970.19 719.1
676709.26 213770.18 613.1
676709.26 214550.16 569.0
676709.25 215350.15 495.8
676709.25 216130.15 448.3
677449.31 201130.16 754.6
677449.29 201910.17 576.3
677449.27 202710.18 442.3
677449.25 203490.17 433.6
677449.23 204290.15 433.6
677449.22 205070.14 433.6
677449.2 205870.13 547.6
677449.2 206650.13 433.6
677449.21 207450.14 433.6
677449.22 208230.15 433.6
677449.23 209030.16 610.2
677449.26 209810.16 853.5
677449.28 210610.16 1260.9
677449.29 211390.16 1399.3
677449.28 212190.18 1031.9
677449.28 212970.19 1027.5
677449.28 213770.17 796.6
677449.28 214550.16 703.0
677449.28 215350.14 612.3
677449.28 216130.14 484.5
678189.3 201130.15 738.1
678189.28 201910.17 517.8
678189.26 202710.18 441.4
678189.24 203490.16 433.6
678189.23 204290.14 433.6
678189.21 205070.13 433.6
678189.19 205870.12 433.6
678189.2 206650.13 433.6
678189.22 207450.15 433.6
678189.24 208230.16 433.6
678189.25 209030.16 555.4
678189.27 209810.16 1060.3
678189.29 210610.16 1377.9
678189.3 211390.16 1590.6
678189.3 212190.18 1225.9
678189.3 212970.18 1105.2
678189.3 213770.17 1019.3
678189.3 214550.15 787.5
678189.29 215350.15 547.6
678189.27 216130.15 413.7
678929.29 201130.16 799.8
678929.27 201910.18 471.5
678929.25 202710.18 433.6
678929.23 203490.16 433.6
678929.21 204290.14 433.6
678929.2 205070.12 433.6
678929.2 205870.12 433.6
678929.22 206650.14 433.6
678929.24 207450.15 433.6
678929.25 208230.16 561.4
678929.27 209030.16 807.8
678929.29 209810.16 1135.9
678929.3 210610.16 1491.9
678929.32 211390.17 1439.4
678929.32 212190.19 1564.0
678929.32 212970.18 1200.9
678929.31 213770.17 936.6
678929.3 214550.16 590.7
678929.28 215350.16 423.2
678929.26 216130.17 413.7
679669.28 201130.16 769.7
679669.26 201910.18 435.5
679669.24 202710.17 433.6
679669.22 203490.16 433.6
679669.21 204290.14 433.6
679669.22 205070.14 433.6
679669.23 205870.13 601.9
679669.25 206650.15 461.3
679669.26 207450.15 535.8
679669.27 208230.16 862.9
679669.29 209030.16 1054.4
679669.31 209810.16 1411.7
679669.32 210610.16 1362.1
679669.33 211390.18 1491.1
679669.34 212190.19 1764.1
679669.32 212970.19 1200.8
679669.3 213770.18 911.4
679669.29 214550.18 445.5
679669.27 215350.17 413.7
679669.26 216130.18 413.7
680409.26 201130.17 784.9
680409.24 201910.19 433.6
680409.23 202710.17 433.6
680409.23 203490.17 433.6
680409.24 204290.16 433.6
680409.24 205070.16 528.9
680409.25 205870.14 946.2
680409.27 206650.15 686.3
680409.28 207450.15 989.0
680409.29 208230.16 1250.8
680409.31 209030.16 1603.9
680409.32 209810.16 1412.5
680409.34 210610.17 1375.2
680409.34 211390.19 1505.6
680409.32 212190.2 1411.9
680409.3 212970.2 809.2
680409.3 213770.2 541.0
680409.28 214550.19 413.7
680409.26 215350.19 413.7
680409.25 216130.2 413.7
681149.24 201130.22 781.1
681149.24 201910.2 433.6
681149.25 202710.19 433.6
681149.26 203490.19 433.6
681149.27 204290.18 433.6
681149.27 205070.17 433.6
681149.28 205870.16 944.9
681149.29 206650.15 1153.9
681149.3 207450.15 1098.3
681149.31 208230.16 1345.1
681149.33 209030.16 1435.0
681149.34 209810.17 1441.7
681149.34 210610.18 1226.8
681149.32 211390.2 1171.7
681149.3 212190.22 822.6
681149.24 212970.19 493.9
681149.28 213770.21 413.7
681149.27 214550.21 413.7
681149.25 215350.2 413.7
681149.24 216130.21 413.7
681889.23 201130.26 758.7
681889.22 201910.25 562.8
681889.26 202710.22 433.6
681889.29 203490.2 433.6
681889.29 204290.2 433.6
681889.3 205070.19 433.6
681889.31 205870.18 853.4
681889.32 206650.18 992.7
681889.32 207450.17 1224.5
681889.33 208230.16 1435.7
681889.34 209030.17 1536.6
681889.34 209810.18 1383.7
681889.32 210610.19 875.2
681889.3 211390.21 800.9
681889.28 212190.23 448.9
681889.22 212970.2 413.7
681889.22 213770.2 413.7
681889.26 214550.22 413.7
681889.24 215350.22 413.7
681889.24 216130.21 413.7
682629.23 201130.26 741.2
682629.21 201910.28 782.9
682629.25 202710.27 433.6
682629.28 203490.25 433.6
682629.31 204290.22 433.6
682629.33 205070.21 441.6
682629.34 205870.2 576.3
682629.34 206650.2 829.2
682629.35 207450.19 1159.6
682629.36 208230.17 1386.0
682629.36 209030.17 1496.4
682629.34 209810.18 1136.1
682629.3 210610.21 717.1
682629.28 211390.22 606.8
682629.26 212190.24 431.0
682629.24 212970.23 424.9
682629.24 213770.23 413.7
682629.24 214550.23 432.3
682629.24 215350.22 502.8
682629.24 216130.21 553.4
683369.26 201130.25 828.8
683369.23 201910.28 792.1
683369.25 202710.27 451.0
683369.28 203490.25 433.6
683369.31 204290.23 433.6
683369.34 205070.22 599.7
683369.36 205870.2 719.4
683369.37 206650.19 790.5
683369.37 207450.18 1001.0
683369.38 208230.17 1274.7
683369.37 209030.18 1235.5
683369.36 209810.19 895.3
683369.34 210610.2 672.5
683369.3 211390.23 564.6
683369.26 212190.24 450.2
683369.25 212970.24 432.3
683369.25 213770.23 483.5
683369.25 214550.22 688.2
683369.26 215350.21 835.8
683369.25 216130.2 760.1
684109.29 201130.23 853.1
684109.26 201910.26 883.4
684109.25 202710.27 572.5
684109.28 203490.25 433.6
684109.31 204290.24 433.6
684109.34 205070.22 620.3
684109.37 205870.2 1176.3
684109.39 206650.18 991.7
684109.39 207450.17 1051.1
684109.39 208230.17 1236.1
684109.38 209030.19 1121.2
684109.37 209810.2 748.6
684109.36 210610.21 587.8
684109.34 211390.22 508.1
684109.29 212190.23 481.7
684109.27 212970.22 603.5
684109.27 213770.21 852.3
684109.27 214550.2 1043.4
684109.27 215350.19 1064.5
684109.27 216130.18 998.9
684849.32 201130.22 1014.9
684849.29 201910.24 890.5
684849.26 202710.27 774.6
684849.29 203490.25 433.6
684849.32 204290.24 433.6
684849.35 205070.22 480.8
684849.38 205870.2 919.0
684849.4 206650.18 1387.4
684849.41 207450.17 1348.1
684849.4 208230.18 1134.9
684849.39 209030.19 1004.9
684849.38 209810.2 583.7
684849.36 210610.21 556.9
684849.35 211390.22 510.0
684849.32 212190.21 548.3
684849.29 212970.2 761.3
684849.28 213770.2 984.1
684849.28 214550.19 1229.2
684849.28 215350.18 1289.6
684849.28 216130.17 1091.6
685589.32 201130.24 910.9
685589.32 201910.22 950.6
685589.29 202710.25 999.9
685589.29 203490.26 592.6
685589.32 204290.24 433.6
685589.35 205070.22 433.6
685589.38 205870.2 612.5
685589.41 206650.18 1086.3
685589.4 207450.17 1330.8
685589.39 208230.18 1026.6
685589.37 209030.19 854.7
685589.36 209810.2 540.1
685589.34 210610.21 478.8
685589.34 211390.22 478.6
685589.34 212190.2 602.3
685589.32 212970.18 789.8
685589.3 213770.18 1021.8
685589.29 214550.17 1331.9
685589.29 215350.16 1413.2
685589.29 216130.16 1170.8
686329.32 201130.26 950.4
686329.32 201910.25 783.3
686329.32 202710.23 1077.5
686329.29 203490.26 720.9
686329.32 204290.24 433.6
686329.35 205070.22 433.6
686329.38 205870.2 433.6
686329.36 206650.19 831.9
686329.37 207450.18 1304.2
686329.37 208230.17 953.4
686329.35 209030.18 699.4
686329.34 209810.19 521.3
686329.32 210610.2 457.0
686329.34 211390.21 456.6
686329.34 212190.18 622.4
686329.34 212970.16 861.0
686329.33 213770.16 1037.2
686329.31 214550.15 1285.4
686329.3 215350.15 1526.3
686329.29 216130.15 1168.0
687069.33 201130.28 876.8
687069.33 201910.27 825.4
687069.33 202710.25 895.3
687069.33 203490.24 793.1
687069.33 204290.24 551.0
687069.36 205070.22 433.6
687069.34 205870.21 433.6
687069.33 206650.19 731.9
687069.33 207450.18 1277.1
687069.33 208230.18 886.1
687069.33 209030.17 624.7
687069.31 209810.18 448.5
687069.32 210610.2 448.8
687069.33 211390.2 485.1
687069.34 212190.17 648.6
687069.33 212970.16 803.6
687069.32 213770.16 975.9
687069.31 214550.16 1204.1
687069.3 215350.15 1465.8
687069.28 216130.15 1338.8
687809.33 201130.3 433.6
687809.33 201910.29 484.0
687809.33 202710.27 467.9
687809.33 203490.26 433.6
687809.33 204290.24 649.3
687809.31 205070.23 433.6
687809.29 205870.21 435.5
687809.29 206650.2 661.3
687809.29 207450.19 1112.1
687809.29 208230.19 886.1
687809.29 209030.18 539.2
687809.31 209810.18 447.0
687809.32 210610.19 447.0
687809.33 211390.18 454.1
687809.33 212190.18 590.2
687809.33 212970.17 768.7
687809.32 213770.16 983.0
687809.31 214550.16 1090.7
687809.29 215350.15 1334.3
687809.28 216130.14 1459.7
688549.33 201130.31 433.6
688549.33 201910.3 433.6
688549.33 202710.28 433.6
688549.33 203490.26 433.6
688549.33 204290.24 433.6
688549.32 205070.23 433.6
688549.29 205870.19 436.0
688549.25 206650.21 516.3
688549.26 207450.2 846.1
688549.27 208230.2 839.0
688549.29 209030.2 477.6
688549.3 209810.19 447.0
688549.32 210610.19 453.2
688549.33 211390.19 458.6
688549.32 212190.18 586.6
688549.32 212970.18 722.6
688549.31 213770.17 867.0
688549.3 214550.17 966.1
688549.29 215350.15 1153.7
688549.27 216130.14 1316.5
689289.33 201130.32 433.6
689289.33 201910.3 433.6
689289.33 202710.28 433.6
689289.33 203490.26 499.3
689289.33 204290.24 482.1
689289.31 205070.22 584.9
689289.27 205870.17 437.1
689289.23 206650.21 438.5
689289.25 207450.2 525.1
689289.27 208230.2 892.9
689289.29 209030.19 477.5
689289.31 209810.19 447.0
689289.32 210610.19 454.5
689289.32 211390.19 469.5
689289.32 212190.19 505.8
689289.31 212970.18 655.8
689289.31 213770.18 758.6
689289.3 214550.17 877.2
689289.28 215350.15 963.6
689289.27 216130.14 1216.0
690029.33 201130.32 487.6
690029.33 201910.3 831.4
690029.33 202710.28 906.3
690029.33 203490.26 828.4
690029.34 204290.24 661.4
690029.31 205070.22 687.5
690029.27 205870.18 442.2
690029.25 206650.2 440.8
690029.27 207450.19 444.3
690029.29 208230.19 583.7
690029.3 209030.19 697.2
690029.31 209810.19 452.8
690029.31 210610.19 517.2
690029.31 211390.19 511.8
690029.31 212190.18 649.3
690029.31 212970.18 767.5
690029.31 213770.18 760.1
690029.29 214550.17 763.7
690029.27 215350.16 800.0
690029.26 216130.15 861.1
690769.33 201130.31 873.3
690769.33 201910.29 1360.5
690769.33 202710.27 1506.3
690769.34 203490.25 1340.4
690769.34 204290.23 836.9
690769.31 205070.22 750.7
690769.27 205870.19 490.4
690769.27 206650.2 443.9
690769.28 207450.19 446.5
690769.29 208230.18 450.8
690769.3 209030.18 456.2
690769.3 209810.19 477.2
690769.3 210610.18 518.3
690769.3 211390.18 698.4
690769.3 212190.18 876.0
690769.31 212970.18 958.9
690769.3 213770.18 900.6
690769.28 214550.18 804.9
690769.27 215350.18 787.5
690769.27 216130.17 777.6
691509.32 201130.3 1139.5
691509.34 201910.28 1709.9
691509.34 202710.26 1791.8
691509.34 203490.24 1679.4
691509.35 204290.23 1047.5
691509.31 205070.22 756.2
691509.27 205870.2 532.1
691509.27 206650.2 449.8
691509.28 207450.19 452.1
691509.29 208230.19 464.5
691509.29 209030.19 516.7
691509.29 209810.19 544.7
691509.3 210610.18 663.5
691509.3 211390.18 821.1
691509.3 212190.18 1125.4
691509.31 212970.18 1158.8
691509.3 213770.18 1077.1
691509.28 214550.19 949.7
691509.27 215350.18 836.1
691509.28 216130.18 840.4
692249.32 201130.3 1341.9
692249.33 201910.27 1882.1
692249.34 202710.25 1542.1
692249.34 203490.23 1623.0
692249.35 204290.23 1143.4
692249.31 205070.21 581.6
692249.28 205870.21 487.3
692249.28 206650.21 500.1
692249.28 207450.2 487.3
692249.28 208230.2 491.0
692249.29 209030.19 573.2
692249.29 209810.19 646.9
692249.3 210610.19 828.5
692249.3 211390.19 963.6
692249.31 212190.19 1175.7
692249.31 212970.18 1191.5
692249.29 213770.19 1135.5
692249.28 214550.18 1043.6
692249.27 215350.18 976.5
692249.29 216130.17 959.3
692989.31 201130.29 1462.4
692989.33 201910.26 1672.0
692989.34 202710.24 1382.6
692989.35 203490.22 1348.9
692989.36 204290.22 1146.3
692989.31 205070.22 594.3
692989.29 205870.22 904.0
692989.29 206650.21 561.2
692989.28 207450.21 525.0
692989.28 208230.2 536.0
692989.29 209030.2 650.6
692989.3 209810.2 788.8
692989.3 210610.19 869.0
692989.3 211390.19 1068.6
692989.31 212190.19 1281.4
692989.31 212970.19 1307.4
692989.3 213770.18 1418.2
692989.29 214550.18 1259.8
692989.28 215350.17 1060.7
692989.29 216130.16 924.3
693729.31 201130.28 1640.8
693729.32 201910.26 1677.3
693729.34 202710.23 1493.1
693729.35 203490.21 1341.5
693729.36 204290.23 1239.0
693729.31 205070.23 645.3
693729.3 205870.23 790.6
693729.3 206650.22 785.3
693729.29 207450.21 592.7
693729.29 208230.2 670.7
693729.3 209030.2 804.6
693729.31 209810.19 996.2
693729.31 210610.19 1085.2
693729.31 211390.19 1124.1
693729.32 212190.19 1424.7
693729.31 212970.18 1464.7
693729.3 213770.17 1405.1
693729.29 214550.17 1327.9
693729.28 215350.16 1133.8
693729.29 216130.16 979.0
694469.3 201130.27 1670.2
694469.32 201910.26 1675.9
694469.33 202710.24 1477.0
694469.35 203490.23 1199.0
694469.35 204290.23 1120.9
694469.31 205070.24 551.3
694469.31 205870.23 618.0
694469.3 206650.22 857.0
694469.3 207450.21 774.7
694469.31 208230.2 877.9
694469.31 209030.2 1091.0
694469.32 209810.19 1344.7
694469.32 210610.19 1498.6
694469.32 211390.19 1329.2
694469.31 212190.19 1451.1
694469.31 212970.19 1386.2
694469.3 213770.17 1285.0
694469.3 214550.16 1183.9
694469.29 215350.15 1169.3
694469.29 216130.15 1140.8
695209.3 201130.29 1612.7
695209.32 201910.27 1711.6
695209.33 202710.25 1439.5
695209.34 203490.24 1354.2
695209.34 204290.24 968.0
695209.32 205070.24 565.2
695209.31 205870.24 927.9
695209.32 206650.23 796.8
695209.32 207450.22 940.3
695209.33 208230.21 1087.0
695209.33 209030.2 1256.6
695209.33 209810.19 1366.9
695209.32 210610.19 1333.1
695209.32 211390.19 1312.4
695209.31 212190.19 1345.4
695209.3 212970.19 1479.1
695209.3 213770.18 1513.1
695209.3 214550.17 1468.9
695209.29 215350.15 1381.6
695209.29 216130.14 1412.0
695949.3 201130.3 1802.6
695949.31 201910.28 1511.3
695949.33 202710.26 1410.9
695949.34 203490.25 1306.4
695949.34 204290.25 897.0
695949.33 205070.25 562.0
695949.33 205870.24 1158.2
695949.33 206650.23 988.5
695949.33 207450.22 1049.8
695949.33 208230.2 1532.8
695949.33 209030.19 1357.9
695949.32 209810.19 1290.1
695949.32 210610.19 1123.5
695949.31 211390.19 1161.6
695949.31 212190.19 1229.5
695949.3 212970.19 1275.6
695949.29 213770.18 1416.2
695949.29 214550.17 1322.5
695949.29 215350.16 1394.6
695949.29 216130.15 1292.6
696689.3 201130.3 1824.0
696689.31 201910.29 1632.6
696689.33 202710.27 1318.6
696689.33 203490.26 1114.7
696689.33 204290.26 591.4
696689.33 205070.25 620.1
696689.33 205870.24 1107.2
696689.33 206650.22 1136.4
696689.33 207450.21 1093.4
696689.33 208230.2 1329.3
696689.32 209030.19 1397.5
696689.32 209810.19 1359.7
696689.31 210610.19 1171.0
696689.31 211390.19 1155.5
696689.3 212190.19 1068.2
696689.3 212970.19 1021.4
696689.29 213770.18 1086.5
696689.28 214550.18 1155.0
696689.28 215350.17 1214.4
696689.28 216130.16 1122.1
